# .PCD v.7 - Point Cloud Data file format
VERSION .7
FIELDS x y z rgb
SIZE 4 4 4 4 4 4
TYPE F F F F F F
COUNT 1 1 1 1 1 1
WIDTH 1475
HEIGHT 1
VIEWPOINT 0 0 0 1 0 0 0
POINTS 1475
DATA ascii
45.415 39.046 57.746 139 131 120
44.882 38.121 56.77 139 131 120
45.713 36.878 56.542 139 131 120
45.365 36.072 55.671 139 131 120
46.792 36.691 57.295 193 205 205
47.664 35.539 57.113 193 205 205
47.032 34.311 57.755 193 205 205
46.712 34.323 58.948 193 205 205
49.039 35.818 57.717 193 205 205
49.74 37.024 57.115 193 205 205
50.994 37.406 57.869 193 205 205
50.937 37.805 59.032 193 205 205
52.139 37.282 57.21 193 205 205
46.86 33.25 56.963 255 228 196
46.271 32.018 57.473 255 228 196
47.164 31.422 58.553 255 228 196
48.398 31.442 58.453 255 228 196
46.045 31.032 56.316 255 228 196
45.559 29.685 56.834 255 228 196
45.057 31.618 55.319 255 228 196
46.54 30.889 59.599 102 205 170
47.251 30.348 60.746 102 205 170
47.106 28.833 60.814 102 205 170
46.114 28.262 60.354 102 205 170
46.734 30.962 62.051 102 205 170
46.783 32.484 62.181 102 205 170
46.21 32.92 63.521 102 205 170
48.208 32.987 62.016 102 205 170
48.116 28.19 61.392 131 139 139
48.033 26.797 61.799 131 139 139
48.523 26.679 63.235 131 139 139
49.171 27.584 63.766 131 139 139
48.841 25.872 60.878 131 139 139
50.304 26.247 60.719 131 139 139
51.108 25.062 60.212 131 139 139
52.407 25.463 59.684 131 139 139
52.676 25.591 58.389 131 139 139
51.736 25.343 57.487 131 139 139
53.885 25.963 57.995 131 139 139
48.197 25.555 63.865 0 255 255
48.486 25.327 65.277 0 255 255
49.522 24.216 65.384 0 255 255
49.214 23.047 65.128 0 255 255
47.214 24.967 66.039 0 255 255
47.236 25.376 67.477 0 255 255
47.383 26.687 67.874 0 255 255
47.127 24.648 68.614 0 255 255
47.366 26.75 69.194 0 255 255
47.21 25.527 69.667 0 255 255
50.742 24.581 65.767 255 228 196
51.854 23.645 65.89 255 228 196
52.302 23.653 67.344 255 228 196
52.898 24.633 67.81 255 228 196
53.016 24.004 64.955 255 228 196
54.074 22.912 64.98 255 228 196
52.511 24.236 63.54 255 228 196
52.014 22.564 68.061 240 255 255
52.437 22.389 69.452 240 255 255
51.937 23.532 70.334 240 255 255
52.705 24.183 71.045 240 255 255
53.958 22.245 69.547 240 255 255
54.475 21.019 68.818 240 255 255
53.959 19.915 68.993 240 255 255
55.494 21.209 67.987 240 255 255
50.63 23.775 70.278 139 131 120
50.022 24.793 71.113 139 131 120
50.397 26.217 70.774 139 131 120
50.171 27.114 71.589 139 131 120
50.958 26.457 69.592 193 205 205
51.4 27.784 69.195 193 205 205
50.854 28.124 67.817 193 205 205
50.725 27.255 66.95 193 205 205
52.933 27.884 69.185 193 205 205
53.577 27.712 70.55 193 205 205
53.191 28.816 71.516 193 205 205
52.484 28.58 72.496 193 205 205
53.655 30.03 71.244 193 205 205
50.534 29.399 67.623 255 239 219
50.085 29.874 66.323 255 239 219
51.281 30.13 65.417 255 239 219
52.32 30.628 65.858 255 239 219
49.255 31.148 66.468 255 239 219
47.9 30.886 67.083 255 239 219
47.429 29.732 67.005 255 239 219
47.306 31.833 67.64 255 239 219
51.123 29.786 64.142 193 205 205
52.202 29.885 63.174 193 205 205
51.617 30.253 61.819 193 205 205
50.601 29.691 61.4 193 205 205
52.981 28.567 63.093 193 205 205
54.129 28.569 62.106 193 205 205
54.913 27.274 62.139 193 205 205
54.839 26.465 61.215 193 205 205
55.67 27.07 63.21 193 205 205
52.257 31.202 61.147 127 255 212
51.784 31.687 59.856 127 255 212
52.109 30.664 58.778 127 255 212
53.214 30.111 58.736 127 255 212
52.412 33.054 59.532 127 255 212
52.003 34.092 60.577 127 255 212
52.011 33.515 58.141 127 255 212
52.659 35.439 60.38 127 255 212
51.142 30.404 57.903 255 228 196
51.381 29.577 56.723 255 228 196
51.952 30.476 55.634 255 228 196
51.252 31.38 55.152 255 228 196
50.1 28.874 56.249 255 228 196
50.421 27.922 55.103 255 228 196
49.444 28.131 57.402 255 228 196
53.206 30.279 55.228 224 238 238
53.815 31.181 54.242 224 238 238
53.094 31.12 52.904 224 238 238
52.837 30.042 52.363 224 238 238
55.256 30.666 54.134 224 238 238
55.489 29.91 55.405 224 238 238
54.169 29.293 55.746 224 238 238
52.763 32.297 52.379 139 131 120
52.142 32.415 51.076 139 131 120
50.663 32.112 51.023 139 131 120
50.134 31.901 49.925 139 131 120
49.97 32.089 52.162 102 205 170
48.55 31.751 52.198 102 205 170
47.793 32.818 52.972 102 205 170
48.111 33.089 54.134 102 205 170
48.323 30.372 52.824 102 205 170
46.874 29.884 52.799 102 205 170
46.327 29.881 51.381 102 205 170
46.767 28.505 53.42 102 205 170
46.792 33.412 52.331 205 183 158
45.968 34.443 52.938 205 183 158
44.499 34.081 52.775 205 183 158
44.12 33.312 51.887 205 183 158
46.235 35.823 52.316 205 183 158
47.564 36.434 52.691 205 183 158
48.747 35.983 52.119 205 183 158
47.635 37.473 53.607 205 183 158
49.965 36.544 52.459 205 183 158
48.847 38.042 53.95 205 183 158
50.007 37.574 53.375 205 183 158
51.213 38.14 53.716 205 183 158
43.67 34.652 53.643 240 248 255
42.232 34.444 53.571 240 248 255
41.527 35.686 54.091 240 248 255
42.004 36.33 55.03 240 248 255
41.797 33.211 54.369 240 248 255
40.396 36.017 53.475 250 235 215
39.603 37.156 53.909 250 235 215
38.151 36.934 53.512 250 235 215
37.845 36.148 52.611 250 235 215
40.135 38.468 53.324 250 235 215
40.432 38.41 51.553 250 235 215
37.259 37.632 54.203 139 131 120
35.84 37.527 53.929 139 131 120
35.158 36.48 54.788 139 131 120
35.65 36.068 55.842 139 131 120
33.992 36.039 54.31 238 223 204
33.224 35.029 55.029 238 223 204
33.962 33.699 55.121 238 223 204
33.698 32.918 56.042 238 223 204
31.861 34.833 54.36 238 223 204
30.883 33.987 55.168 238 223 204
29.485 33.974 54.576 238 223 204
29.272 34.624 53.531 238 223 204
28.598 33.312 55.157 238 223 204
34.885 33.424 54.195 240 248 255
35.67 32.199 54.274 240 248 255
36.693 32.238 55.4 240 248 255
37.113 31.176 55.875 240 248 255
36.377 31.937 52.945 240 248 255
37.097 33.425 55.839 240 248 255
38.123 33.571 56.859 240 248 255
37.504 33.769 58.237 240 248 255
36.35 34.178 58.377 240 248 255
39.048 34.747 56.536 240 248 255
38.301 33.478 59.26 250 235 215
37.929 33.693 60.656 250 235 215
39.018 34.564 61.278 250 235 215
40.057 34.055 61.712 250 235 215
37.767 32.365 61.39 250 235 215
36.929 32.489 62.989 250 235 215
38.773 35.877 61.317 240 248 255
39.805 36.826 61.731 240 248 255
40.217 36.647 63.198 240 248 255
41.414 36.556 63.49 240 248 255
39.35 38.262 61.45 240 248 255
39.269 36.604 64.148 227 207 87
37.814 36.659 63.983 227 207 87
37.23 37.969 64.495 227 207 87
37.29 38.261 65.689 227 207 87
37.158 35.486 64.711 227 207 87
35.747 35.543 64.602 227 207 87
36.656 38.758 63.586 255 228 196
36.002 39.996 63.995 255 228 196
34.58 39.762 64.484 255 228 196
34.025 40.622 65.18 255 228 196
35.986 41.02 62.849 255 228 196
37.383 41.552 62.604 255 228 196
35.418 40.392 61.585 255 228 196
33.971 38.626 64.147 0 255 255
32.597 38.358 64.545 0 255 255
32.487 37.387 65.709 0 255 255
31.435 37.339 66.355 0 255 255
31.797 37.814 63.357 0 255 255
31.992 38.593 62.095 0 255 255
31.619 39.914 61.97 0 255 255
32.527 38.239 60.902 0 255 255
31.912 40.338 60.754 0 255 255
32.463 39.341 60.086 0 255 255
33.537 36.622 65.992 139 131 120
33.523 35.691 67.101 139 131 120
32.348 34.737 67.081 139 131 120
32.167 33.975 66.127 139 131 120
31.528 34.787 68.127 240 248 255
30.406 33.873 68.27 240 248 255
29.128 34.374 67.608 240 248 255
28.169 33.603 67.501 240 248 255
30.137 33.597 69.752 240 248 255
29.086 35.631 67.163 240 255 255
27.9 36.149 66.491 240 255 255
28.258 37.409 65.717 240 255 255
28.856 38.336 66.274 240 255 255
26.779 36.44 67.495 240 255 255
25.45 35.857 67.063 240 255 255
25.063 35.956 65.897 240 255 255
24.748 35.232 67.999 240 255 255
27.872 37.443 64.443 131 139 139
28.159 38.563 63.56 131 139 139
27.097 39.647 63.691 131 139 139
25.898 39.358 63.72 131 139 139
28.228 38.089 62.109 131 139 139
28.371 39.209 61.096 131 139 139
27.46 38.991 59.901 131 139 139
26.046 39.074 60.251 131 139 139
25.068 39.211 59.363 131 139 139
23.805 39.278 59.764 131 139 139
25.356 39.289 58.071 131 139 139
27.547 40.897 63.757 102 205 170
26.632 42.027 63.777 102 205 170
26.229 42.42 62.358 102 205 170
26.913 42.112 61.378 102 205 170
27.262 43.229 64.481 102 205 170
27.545 43.108 65.977 102 205 170
28.039 44.441 66.515 102 205 170
26.306 42.645 66.727 102 205 170
25.102 43.119 62.261 139 131 120
24.626 43.565 60.968 139 131 120
25.515 44.639 60.371 139 131 120
26.117 45.45 61.076 139 131 120
25.601 44.627 59.042 240 248 255
26.382 45.567 58.242 240 248 255
27.873 45.534 58.562 240 248 255
28.608 46.44 58.15 240 248 255
25.851 47.0 58.378 240 248 255
28.344 44.516 59.282 240 255 255
29.769 44.343 59.531 240 255 255
30.43 43.365 58.569 240 255 255
31.664 43.302 58.527 240 255 255
30.012 43.871 60.971 240 255 255
30.332 45.015 61.914 240 255 255
30.572 46.142 61.482 240 255 255
30.353 44.725 63.209 240 255 255
29.648 42.607 57.798 227 207 87
30.235 41.646 56.871 227 207 87
30.878 42.347 55.683 227 207 87
32.034 42.074 55.341 227 207 87
29.176 40.655 56.402 227 207 87
29.004 39.624 57.348 227 207 87
30.138 43.25 55.033 102 205 170
30.717 44.016 53.936 102 205 170
31.909 44.839 54.405 102 205 170
32.837 45.089 53.626 102 205 170
29.656 44.918 53.306 102 205 170
28.414 44.238 52.725 102 205 170
27.459 45.276 52.155 102 205 170
28.796 43.221 51.663 102 205 170
31.904 45.264 55.671 102 205 170
33.085 45.903 56.242 102 205 170
34.234 44.911 56.369 102 205 170
35.381 45.237 56.041 102 205 170
32.746 46.51 57.602 102 205 170
33.875 47.278 58.29 102 205 170
34.266 48.488 57.461 102 205 170
33.475 47.689 59.698 102 205 170
33.941 43.695 56.84 255 239 219
34.958 42.65 56.918 255 239 219
35.553 42.336 55.55 255 239 219
36.732 41.977 55.455 255 239 219
34.353 41.39 57.542 255 239 219
35.322 40.223 57.569 255 239 219
36.33 40.301 58.299 255 239 219
35.073 39.221 56.868 255 239 219
34.76 42.471 54.484 102 205 170
35.255 42.173 53.143 102 205 170
36.289 43.198 52.694 102 205 170
37.389 42.837 52.26 102 205 170
34.092 42.128 52.149 102 205 170
32.926 41.179 52.43 102 205 170
31.905 41.245 51.306 102 205 170
33.422 39.76 52.624 102 205 170
35.951 44.485 52.788 255 228 196
36.815 45.515 52.224 255 228 196
38.032 45.774 53.106 255 228 196
39.104 46.123 52.598 255 228 196
36.014 46.806 51.979 255 228 196
34.91 46.554 50.965 255 228 196
35.432 47.331 53.279 255 228 196
37.903 45.607 54.424 255 228 196
39.018 45.908 55.316 255 228 196
40.103 44.845 55.195 255 228 196
41.288 45.16 55.035 255 228 196
38.526 46.05 56.767 255 228 196
39.699 45.997 57.729 255 228 196
37.763 47.352 56.937 255 228 196
39.717 43.573 55.258 205 192 176
40.699 42.497 55.249 205 192 176
41.105 42.064 53.848 205 192 176
42.195 41.502 53.685 205 192 176
40.172 41.305 56.047 205 192 176
40.079 41.576 57.517 205 192 176
41.198 41.46 58.327 205 192 176
38.884 41.978 58.087 205 192 176
41.123 41.723 59.681 205 192 176
38.8 42.241 59.443 205 192 176
39.921 42.114 60.24 205 192 176
40.271 42.31 52.838 139 131 120
40.748 42.191 51.472 139 131 120
41.847 43.191 51.174 139 131 120
42.846 42.863 50.529 139 131 120
41.68 44.426 51.652 131 139 139
42.749 45.415 51.566 131 139 139
43.936 45.017 52.435 131 139 139
45.093 45.217 52.045 131 139 139
42.214 46.789 51.971 131 139 139
43.276 47.811 52.338 131 139 139
42.64 49.084 52.877 131 139 139
43.629 49.995 53.446 131 139 139
44.298 50.905 52.745 131 139 139
44.087 51.03 51.442 131 139 139
45.179 51.691 53.348 131 139 139
43.669 44.442 53.612 240 248 255
44.748 44.048 54.512 240 248 255
45.594 42.93 53.914 240 248 255
46.817 42.908 54.094 240 248 255
44.177 43.625 55.865 240 248 255
44.963 41.99 53.207 250 235 215
45.725 40.944 52.531 250 235 215
46.651 41.536 51.477 250 235 215
47.812 41.128 51.36 250 235 215
44.78 39.922 51.899 250 235 215
43.901 38.879 53.084 250 235 215
46.155 42.504 50.703 240 248 255
46.994 43.138 49.692 240 248 255
48.138 43.913 50.332 240 248 255
49.274 43.865 49.846 240 248 255
46.151 44.055 48.806 240 248 255
47.862 44.627 51.427 102 205 170
48.908 45.4 52.09 102 205 170
50.0 44.495 52.647 102 205 170
51.191 44.811 52.539 102 205 170
48.307 46.257 53.205 102 205 170
47.44 47.442 52.776 102 205 170
46.99 48.246 53.986 102 205 170
48.188 48.324 51.791 102 205 170
49.617 43.364 53.244 227 207 87
50.612 42.469 53.824 227 207 87
51.462 41.796 52.755 227 207 87
52.639 41.504 52.996 227 207 87
49.93 41.419 54.698 227 207 87
49.256 42.033 55.782 227 207 87
50.893 41.544 51.576 127 255 212
51.667 40.926 50.504 127 255 212
52.65 41.927 49.909 127 255 212
53.806 41.589 49.626 127 255 212
50.725 40.341 49.436 127 255 212
49.897 39.2 50.03 127 255 212
51.518 39.852 48.231 127 255 212
48.785 38.718 49.133 127 255 212
52.218 43.177 49.72 238 223 204
53.104 44.183 49.149 238 223 204
54.12 44.712 50.152 238 223 204
55.145 45.265 49.738 238 223 204
52.296 45.347 48.568 238 223 204
51.476 46.127 49.575 238 223 204
50.688 47.251 48.928 238 223 204
51.316 48.162 48.349 238 223 204
49.44 47.215 48.985 238 223 204
53.869 44.557 51.451 238 223 204
54.838 44.963 52.46 238 223 204
55.862 43.878 52.768 238 223 204
56.886 44.175 53.392 238 223 204
54.124 45.372 53.756 238 223 204
53.669 44.204 54.619 238 223 204
52.882 44.649 55.84 238 223 204
52.553 45.85 55.932 238 223 204
52.594 43.797 56.709 238 223 204
55.616 42.637 52.346 227 207 87
56.531 41.533 52.593 227 207 87
57.155 40.97 51.325 227 207 87
58.065 40.14 51.421 227 207 87
55.811 40.4 53.338 227 207 87
54.915 39.718 52.477 227 207 87
56.691 41.387 50.149 250 235 215
57.217 40.897 48.883 250 235 215
57.286 42.056 47.898 250 235 215
56.972 43.204 48.229 250 235 215
56.358 39.756 48.324 250 235 215
56.344 38.26 49.333 250 235 215
57.7 41.743 46.676 131 139 139
57.794 42.709 45.595 131 139 139
57.303 42.063 44.311 131 139 139
57.414 40.843 44.145 131 139 139
59.234 43.216 45.405 131 139 139
59.629 44.364 46.326 131 139 139
58.797 45.611 46.049 131 139 139
57.549 45.63 46.809 131 139 139
56.493 46.375 46.497 131 139 139
56.528 47.162 45.43 131 139 139
55.4 46.328 47.247 131 139 139
56.737 42.85 43.396 224 238 238
56.32 42.29 42.106 224 238 238
57.503 41.708 41.351 224 238 238
58.613 42.242 41.386 224 238 238
55.721 43.496 41.374 224 238 238
55.298 44.425 42.464 224 238 238
56.319 44.254 43.553 224 238 238
57.257 40.592 40.671 139 131 120
58.29 39.943 39.893 139 131 120
59.282 39.124 40.685 139 131 120
60.335 38.77 40.143 139 131 120
58.99 38.815 41.946 255 239 219
59.871 37.953 42.717 255 239 219
59.884 36.544 42.131 255 239 219
59.023 36.164 41.33 255 239 219
59.442 37.908 44.184 255 239 219
59.784 39.18 44.932 255 239 219
60.371 40.095 44.315 255 239 219
59.465 39.268 46.136 255 239 219
60.885 35.765 42.539 118 238 198
61.052 34.41 42.03 118 238 198
59.842 33.547 42.366 118 238 198
59.584 33.258 43.539 118 238 198
62.327 33.779 42.592 118 238 198
59.092 33.147 41.344 255 228 196
57.952 32.251 41.518 255 228 196
58.471 30.927 42.065 255 228 196
59.302 30.275 41.417 255 228 196
57.184 32.053 40.202 255 228 196
56.128 30.971 40.362 255 228 196
56.547 33.362 39.758 255 228 196
58.026 30.503 43.247 224 238 238
58.563 29.277 43.828 224 238 238
58.242 28.084 42.951 224 238 238
57.177 28.031 42.308 224 238 238
57.852 29.188 45.186 224 238 238
57.392 30.582 45.476 224 238 238
57.063 31.168 44.14 224 238 238
59.135 27.102 42.892 224 238 238
58.9 25.929 42.05 224 238 238
58.076 24.866 42.763 224 238 238
57.991 24.814 43.992 224 238 238
60.32 25.42 41.76 224 238 238
61.18 25.969 42.886 224 238 238
60.379 26.979 43.67 224 238 238
57.456 24.011 41.952 127 255 212
56.642 22.911 42.446 127 255 212
57.078 21.631 41.749 127 255 212
57.676 21.655 40.671 127 255 212
55.133 23.154 42.23 127 255 212
54.84 23.396 40.749 127 255 212
54.652 24.323 43.077 127 255 212
53.386 23.687 40.456 127 255 212
56.774 20.504 42.387 118 238 198
57.088 19.212 41.8 118 238 198
56.34 19.045 40.478 118 238 198
55.275 19.637 40.278 118 238 198
56.724 18.081 42.761 118 238 198
57.532 18.075 44.05 118 238 198
57.851 16.654 44.5 118 238 198
56.589 15.853 44.788 118 238 198
55.856 16.365 45.981 118 238 198
56.886 18.258 39.548 224 238 238
56.212 18.09 38.25 224 238 238
54.819 17.498 38.363 224 238 238
53.942 17.84 37.56 224 238 238
57.161 17.157 37.484 224 238 238
58.49 17.344 38.139 224 238 238
58.19 17.574 39.587 224 238 238
54.588 16.622 39.34 240 255 255
53.295 15.979 39.54 240 255 255
52.482 16.641 40.648 240 255 255
51.685 15.973 41.317 240 255 255
53.491 14.492 39.834 240 255 255
54.642 14.236 40.789 240 255 255
55.792 14.104 40.37 240 255 255
54.338 14.165 42.08 240 255 255
52.667 17.942 40.856 240 248 255
51.908 18.654 41.875 240 248 255
50.451 18.785 41.448 240 248 255
50.155 19.248 40.343 240 248 255
52.515 20.033 42.125 240 248 255
49.541 18.372 42.327 139 131 120
48.127 18.378 42.027 139 131 120
47.594 17.099 41.421 139 131 120
46.415 17.056 41.046 139 131 120
48.423 16.057 41.31 238 223 204
47.958 14.794 40.744 238 223 204
46.83 14.199 41.577 238 223 204
45.898 13.596 41.031 238 223 204
49.122 13.808 40.637 238 223 204
46.897 14.358 42.901 238 223 204
45.833 13.856 43.763 238 223 204
44.51 14.555 43.48 238 223 204
43.446 13.932 43.567 238 223 204
46.228 14.026 45.23 238 223 204
47.618 13.495 45.553 238 223 204
48.08 13.861 46.952 238 223 204
47.218 14.071 47.833 238 223 204
49.308 13.942 47.168 238 223 204
44.557 15.843 43.131 227 207 87
43.335 16.563 42.789 227 207 87
42.757 16.074 41.467 227 207 87
41.538 15.904 41.342 227 207 87
43.615 18.064 42.729 227 207 87
44.243 18.507 43.919 227 207 87
43.615 15.843 40.47 255 228 196
43.142 15.364 39.175 255 228 196
42.641 13.93 39.285 255 228 196
41.659 13.549 38.635 255 228 196
44.254 15.5 38.119 255 228 196
43.758 15.039 36.758 255 228 196
44.747 16.938 38.052 255 228 196
43.304 13.111 40.106 69 139 116
42.831 11.749 40.334 69 139 116
41.441 11.746 40.956 69 139 116
40.573 10.965 40.55 69 139 116
43.814 10.991 41.226 69 139 116
45.09 10.556 40.529 69 139 116
46.293 9.876 41.688 69 139 116
45.3 8.636 42.516 69 139 116
41.213 12.612 41.945 240 255 255
39.891 12.702 42.553 240 255 255
38.861 13.21 41.552 240 255 255
37.708 12.763 41.557 240 255 255
39.94 13.607 43.783 240 255 255
38.59 13.754 44.45 240 255 255
37.813 14.646 44.111 240 255 255
38.303 12.877 45.405 240 255 255
39.26 14.14 40.682 102 205 170
38.336 14.654 39.676 102 205 170
37.943 13.57 38.682 102 205 170
36.77 13.457 38.309 102 205 170
38.96 15.844 38.948 102 205 170
38.029 16.552 37.965 102 205 170
36.875 17.184 38.717 102 205 170
38.776 17.596 37.159 102 205 170
38.911 12.761 38.245 255 239 219
38.615 11.712 37.277 255 239 219
37.766 10.605 37.887 255 239 219
36.956 9.991 37.183 255 239 219
39.915 11.136 36.713 255 239 219
39.68 10.219 35.53 255 239 219
39.367 10.731 34.435 255 239 219
39.807 8.987 35.694 255 239 219
37.931 10.336 39.185 118 238 198
37.118 9.311 39.832 118 238 198
35.661 9.741 39.929 118 238 198
34.753 8.925 39.732 118 238 198
37.674 8.989 41.219 118 238 198
38.942 8.151 41.208 118 238 198
39.282 7.664 42.609 118 238 198
40.45 6.69 42.593 118 238 198
40.716 6.123 43.945 118 238 198
35.415 11.018 40.234 102 205 170
34.04 11.5 40.311 102 205 170
33.377 11.517 38.941 102 205 170
32.165 11.295 38.839 102 205 170
34.001 12.896 40.933 102 205 170
34.56 13.044 42.349 102 205 170
34.306 14.448 42.871 102 205 170
33.964 12.003 43.282 102 205 170
34.148 11.775 37.884 131 139 139
33.581 11.787 36.54 131 139 139
33.202 10.383 36.087 131 139 139
32.174 10.193 35.428 131 139 139
34.568 12.418 35.561 131 139 139
34.094 12.417 34.122 131 139 139
34.941 13.342 33.274 131 139 139
36.255 12.787 32.963 131 139 139
36.633 12.404 31.747 131 139 139
35.797 12.524 30.725 131 139 139
37.847 11.909 31.55 131 139 139
34.018 9.389 36.432 205 192 176
33.771 7.996 36.068 205 192 176
33.229 7.189 37.241 205 192 176
33.664 6.061 37.489 205 192 176
35.045 7.364 35.517 205 192 176
35.474 7.927 34.193 205 192 176
34.542 8.181 33.2 205 192 176
36.806 8.214 33.944 205 192 176
34.931 8.702 31.98 205 192 176
37.201 8.736 32.726 205 192 176
36.262 8.981 31.744 205 192 176
32.275 7.75 37.978 240 248 255
31.647 7.069 39.099 240 248 255
30.316 6.475 38.662 240 248 255
29.567 7.095 37.901 240 248 255
31.435 8.026 40.274 240 248 255
30.025 5.265 39.149 255 239 219
28.797 4.552 38.817 255 239 219
28.49 3.596 39.974 255 239 219
28.577 2.373 39.865 255 239 219
28.918 3.814 37.482 255 239 219
27.589 3.27 36.989 255 239 219
26.577 3.414 37.706 255 239 219
27.557 2.699 35.879 255 239 219
28.12 4.167 41.11 139 131 120
27.827 3.421 42.323 139 131 120
26.341 3.253 42.55 139 131 120
25.565 3.057 41.608 139 131 120
25.936 3.333 43.819 227 207 87
24.548 3.125 44.204 227 207 87
23.847 4.381 44.7 227 207 87
22.614 4.425 44.679 227 207 87
24.454 2.047 45.294 227 207 87
25.181 2.426 46.45 227 207 87
24.59 5.392 45.141 127 255 212
24.019 6.616 45.691 127 255 212
24.282 7.748 44.71 127 255 212
25.435 8.012 44.347 127 255 212
24.602 6.941 47.074 127 255 212
24.292 5.814 48.061 127 255 212
24.058 8.268 47.582 127 255 212
24.798 6.074 49.464 127 255 212
23.216 8.416 44.28 131 139 139
23.36 9.569 43.408 131 139 139
23.912 10.757 44.192 131 139 139
23.866 10.8 45.425 131 139 139
22.016 9.931 42.775 131 139 139
21.341 8.771 42.06 131 139 139
21.954 8.523 40.693 131 139 139
21.568 7.224 40.147 131 139 139
20.411 6.977 39.541 131 139 139
19.511 7.941 39.402 131 139 139
20.151 5.762 39.078 131 139 139
24.447 11.733 43.454 245 245 220
25.002 12.92 44.098 245 245 220
23.915 13.724 44.802 245 245 220
24.11 14.193 45.93 245 245 220
25.729 13.787 43.07 245 245 220
26.79 13.033 42.47 245 245 220
26.311 15.029 43.731 245 245 220
22.76 13.887 44.155 227 207 87
21.67 14.64 44.766 227 207 87
21.104 13.925 45.984 227 207 87
20.684 14.58 46.945 227 207 87
20.566 14.889 43.739 227 207 87
20.048 13.664 43.25 227 207 87
21.084 12.59 45.967 238 223 204
20.552 11.841 47.101 238 223 204
21.44 11.992 48.33 238 223 204
20.939 12.183 49.445 238 223 204
20.397 10.368 46.727 238 223 204
19.477 10.125 45.542 238 223 204
19.474 8.676 45.095 238 223 204
20.35 7.911 45.549 238 223 204
18.595 8.303 44.289 238 223 204
22.76 11.907 48.148 102 205 170
23.67 12.076 49.276 102 205 170
23.634 13.508 49.795 102 205 170
23.689 13.735 51.01 102 205 170
25.09 11.678 48.866 102 205 170
26.083 11.271 49.962 102 205 170
27.176 10.393 49.375 102 205 170
26.699 12.482 50.652 102 205 170
23.535 14.486 48.89 131 139 139
23.469 15.88 49.316 131 139 139
22.21 16.149 50.131 131 139 139
22.248 16.888 51.121 131 139 139
23.532 16.807 48.1 131 139 139
23.398 18.282 48.447 131 139 139
23.527 19.178 47.226 131 139 139
22.599 18.802 46.163 131 139 139
22.969 18.255 45.01 131 139 139
24.252 18.027 44.763 131 139 139
22.056 17.943 44.1 131 139 139
21.085 15.551 49.733 102 205 170
19.843 15.755 50.47 102 205 170
19.916 15.132 51.859 102 205 170
19.433 15.72 52.834 102 205 170
18.667 15.18 49.681 102 205 170
17.279 15.344 50.303 102 205 170
16.963 16.813 50.53 102 205 170
16.22 14.696 49.425 102 205 170
20.522 13.947 51.97 227 207 87
20.644 13.298 53.272 227 207 87
21.551 14.093 54.203 227 207 87
21.271 14.205 55.403 227 207 87
21.166 11.872 53.1 227 207 87
20.296 11.104 52.289 227 207 87
22.645 14.647 53.672 69 139 116
23.527 15.479 54.483 69 139 116
22.802 16.725 54.973 69 139 116
22.838 17.053 56.165 69 139 116
24.77 15.868 53.682 69 139 116
25.677 16.859 54.402 69 139 116
26.743 17.791 53.283 69 139 116
25.526 18.748 52.379 69 139 116
22.136 17.435 54.058 193 205 205
21.43 18.655 54.432 193 205 205
20.309 18.366 55.423 193 205 205
20.056 19.165 56.333 193 205 205
20.882 19.341 53.183 193 205 205
21.954 19.892 52.261 193 205 205
21.386 20.425 50.962 193 205 205
20.236 20.154 50.615 193 205 205
22.192 21.189 50.234 193 205 205
19.63 17.228 55.268 118 238 198
18.569 16.87 56.204 118 238 198
19.136 16.572 57.586 118 238 198
18.613 17.051 58.599 118 238 198
17.781 15.671 55.673 118 238 198
16.327 15.974 55.34 118 238 198
16.212 16.987 54.213 118 238 198
14.758 17.255 53.852 118 238 198
13.999 17.859 54.981 118 238 198
20.213 15.783 57.647 227 207 87
20.805 15.439 58.936 227 207 87
21.368 16.671 59.636 227 207 87
21.228 16.816 60.855 227 207 87
21.892 14.381 58.748 227 207 87
21.362 13.202 58.165 227 207 87
22.006 17.571 58.884 69 139 116
22.49 18.811 59.481 69 139 116
21.333 19.679 59.959 69 139 116
21.438 20.351 60.991 69 139 116
23.359 19.576 58.482 69 139 116
24.661 18.879 58.128 69 139 116
25.714 18.625 59.569 69 139 116
25.929 20.311 60.135 69 139 116
20.216 19.67 59.227 193 205 205
19.062 20.464 59.631 193 205 205
18.4 19.902 60.883 193 205 205
17.881 20.667 61.703 193 205 205
18.048 20.54 58.488 193 205 205
17.03 21.658 58.639 193 205 205
17.648 23.032 58.458 193 205 205
18.478 23.239 57.572 193 205 205
17.25 23.978 59.301 193 205 205
18.415 18.582 61.054 240 255 255
17.732 17.933 62.165 240 255 255
18.635 17.662 63.363 240 255 255
18.156 17.121 64.365 240 255 255
17.103 16.614 61.698 240 255 255
16.027 16.819 60.647 240 255 255
15.32 17.827 60.652 240 255 255
15.896 15.858 59.738 240 255 255
19.913 18.021 63.299 0 255 255
20.809 17.683 64.402 0 255 255
21.689 18.838 64.859 0 255 255
21.96 18.953 66.056 0 255 255
21.697 16.487 64.014 0 255 255
20.943 15.206 63.836 0 255 255
20.496 14.452 64.9 0 255 255
20.56 14.543 62.719 0 255 255
19.87 13.381 64.446 0 255 255
19.895 13.413 63.126 0 255 255
22.144 19.692 63.946 240 248 255
23.105 20.74 64.267 240 248 255
22.593 22.117 63.859 240 248 255
23.355 22.969 63.398 240 248 255
24.454 20.455 63.61 240 248 255
21.303 22.361 64.042 240 248 255
20.677 23.623 63.67 240 248 255
20.482 24.465 64.937 240 248 255
21.441 24.582 65.707 240 248 255
19.408 23.339 62.866 240 248 255
19.309 25.052 65.189 255 228 196
19.149 25.928 66.347 255 228 196
19.105 25.116 67.636 255 228 196
19.714 25.492 68.645 255 228 196
17.894 26.804 66.184 255 228 196
17.665 27.642 67.432 255 228 196
18.028 27.695 64.96 255 228 196
18.391 23.995 67.628 205 192 176
18.317 23.136 68.801 205 192 176
19.513 22.193 68.821 205 192 176
19.657 21.345 67.934 205 192 176
17.012 22.347 68.806 205 192 176
16.944 21.303 69.879 205 192 176
16.861 21.668 71.212 205 192 176
16.957 19.957 69.555 205 192 176
16.793 20.709 72.202 205 192 176
16.891 18.992 70.543 205 192 176
16.808 19.369 71.868 205 192 176
20.365 22.334 69.835 131 139 139
21.561 21.512 69.973 131 139 139
21.601 20.933 71.378 131 139 139
21.627 21.681 72.36 131 139 139
22.828 22.325 69.682 131 139 139
22.855 22.922 68.286 131 139 139
24.137 23.687 68.006 131 139 139
24.144 24.225 66.647 131 139 139
25.156 24.897 66.111 131 139 139
26.254 25.119 66.817 131 139 139
25.07 25.348 64.867 131 139 139
21.598 19.602 71.469 255 228 196
21.712 18.897 72.738 255 228 196
22.543 17.642 72.505 255 228 196
22.615 17.116 71.392 255 228 196
20.331 18.543 73.341 255 228 196
19.711 17.357 72.619 255 228 196
20.444 18.28 74.836 255 228 196
23.181 17.173 73.577 139 131 120
24.145 16.088 73.522 139 131 120
23.773 14.876 72.692 139 131 120
24.497 14.515 71.761 139 131 120
22.646 14.238 73.016 227 207 87
22.277 13.001 72.333 227 207 87
21.953 13.249 70.865 227 207 87
22.283 12.424 70.004 227 207 87
21.092 12.344 73.041 227 207 87
19.982 13.221 73.099 227 207 87
21.309 14.377 70.558 255 228 196
20.98 14.686 69.169 255 228 196
22.242 15.007 68.379 255 228 196
22.402 14.568 67.233 255 228 196
19.959 15.838 69.107 255 228 196
19.732 16.275 67.668 255 228 196
18.647 15.414 69.748 255 228 196
23.162 15.768 68.978 102 205 170
24.409 16.102 68.297 102 205 170
25.26 14.861 68.055 102 205 170
25.885 14.73 66.996 102 205 170
25.189 17.136 69.11 102 205 170
24.595 18.543 69.19 102 205 170
25.319 19.377 70.237 102 205 170
24.653 19.221 67.831 102 205 170
25.295 13.939 69.021 193 205 205
26.115 12.741 68.864 193 205 205
25.549 11.815 67.795 193 205 205
26.306 11.233 67.01 193 205 205
26.243 12.011 70.2 193 205 205
27.083 12.756 71.224 193 205 205
27.194 12.017 72.541 193 205 205
26.933 10.816 72.616 193 205 205
27.581 12.732 73.589 193 205 205
24.223 11.66 67.75 238 223 204
23.617 10.886 66.671 238 223 204
23.875 11.543 65.323 238 223 204
24.104 10.854 64.321 238 223 204
22.115 10.725 66.904 238 223 204
21.418 9.923 65.812 238 223 204
19.911 10.076 65.838 238 223 204
19.402 10.84 66.684 238 223 204
19.235 9.433 65.007 238 223 204
23.845 12.876 65.279 139 131 120
24.148 13.571 64.04 139 131 120
25.577 13.349 63.584 139 131 120
25.843 13.217 62.388 139 131 120
26.517 13.304 64.533 250 235 215
27.907 13.022 64.185 250 235 215
28.045 11.644 63.552 250 235 215
28.807 11.465 62.595 250 235 215
28.797 13.13 65.424 250 235 215
28.969 14.8 66.096 250 235 215
27.314 10.656 64.071 139 131 120
27.371 9.326 63.488 139 131 120
26.74 9.265 62.111 139 131 120
27.217 8.542 61.232 139 131 120
25.661 10.024 61.901 118 238 198
25.009 10.038 60.595 118 238 198
25.89 10.713 59.551 118 238 198
26.065 10.193 58.443 118 238 198
23.65 10.734 60.691 118 238 198
22.645 10.011 61.575 118 238 198
21.297 10.72 61.597 118 238 198
20.62 10.676 60.235 118 238 198
19.264 11.294 60.266 118 238 198
26.461 11.872 59.89 127 255 212
27.314 12.584 58.943 127 255 212
28.572 11.778 58.644 127 255 212
29.054 11.756 57.505 127 255 212
27.649 13.989 59.474 127 255 212
26.367 14.789 59.717 127 255 212
28.544 14.732 58.495 127 255 212
25.533 15.006 58.473 127 255 212
29.123 11.098 59.655 227 207 87
30.277 10.237 59.413 227 207 87
29.911 9.067 58.51 227 207 87
30.71 8.659 57.659 227 207 87
30.853 9.734 60.736 227 207 87
31.549 10.765 61.413 227 207 87
28.709 8.513 58.682 118 238 198
28.248 7.457 57.787 118 238 198
28.043 7.991 56.374 118 238 198
28.306 7.287 55.393 118 238 198
26.959 6.838 58.33 118 238 198
26.415 5.667 57.519 118 238 198
25.31 6.106 56.568 118 238 198
24.679 4.915 55.868 118 238 198
23.665 5.332 54.86 118 238 198
27.576 9.237 56.252 102 205 170
27.405 9.835 54.934 102 205 170
28.745 10.138 54.276 102 205 170
28.847 10.113 53.044 102 205 170
26.562 11.105 55.039 102 205 170
25.107 10.887 55.457 102 205 170
24.427 12.212 55.748 102 205 170
24.354 10.119 54.381 102 205 170
29.778 10.428 55.071 205 183 158
31.102 10.644 54.496 205 183 158
31.685 9.341 53.968 205 183 158
32.369 9.332 52.938 205 183 158
32.036 11.275 55.529 205 183 158
33.371 11.698 54.957 205 183 158
33.523 12.931 54.336 205 183 158
34.479 10.862 55.032 205 183 158
34.74 13.322 53.809 205 183 158
35.699 11.244 54.507 205 183 158
35.825 12.475 53.898 205 183 158
37.039 12.859 53.374 205 183 158
31.424 8.229 54.659 139 131 120
31.84 6.937 54.143 139 131 120
31.098 6.539 52.885 139 131 120
31.629 5.793 52.057 139 131 120
29.871 7.031 52.717 255 239 219
29.076 6.746 51.53 255 239 219
29.505 7.557 50.314 255 239 219
28.953 7.347 49.229 255 239 219
27.592 6.993 51.815 255 239 219
26.946 5.851 52.576 255 239 219
27.61 4.809 52.763 255 239 219
25.775 5.995 52.987 255 239 219
30.465 8.474 50.462 102 205 170
30.991 9.181 49.3 102 205 170
31.677 8.237 48.323 102 205 170
31.821 8.579 47.145 102 205 170
31.965 10.278 49.735 102 205 170
31.356 11.557 50.312 102 205 170
32.449 12.528 50.728 102 205 170
30.418 12.206 49.307 102 205 170
32.101 7.062 48.785 118 238 198
32.681 6.046 47.917 118 238 198
31.63 5.276 47.128 118 238 198
31.988 4.358 46.382 118 238 198
33.523 5.072 48.744 118 238 198
34.529 5.751 49.658 118 238 198
35.282 4.738 50.503 118 238 198
36.19 5.429 51.507 118 238 198
35.421 6.293 52.445 118 238 198
30.35 5.619 47.278 0 255 255
29.263 4.971 46.556 0 255 255
28.568 5.923 45.588 0 255 255
27.423 5.678 45.197 0 255 255
28.249 4.386 47.541 0 255 255
28.855 3.494 48.58 0 255 255
30.028 2.8 48.375 0 255 255
28.452 3.187 49.836 0 255 255
30.32 2.102 49.458 0 255 255
29.38 2.32 50.359 0 255 255
29.238 7.004 45.195 102 205 170
28.62 8.009 44.345 102 205 170
28.422 7.483 42.926 102 205 170
29.118 6.575 42.462 102 205 170
29.466 9.283 44.315 102 205 170
29.335 10.217 45.518 102 205 170
30.306 11.38 45.398 102 205 170
27.909 10.724 45.645 102 205 170
27.45 8.075 42.234 118 238 198
27.144 7.726 40.849 118 238 198
26.79 9.004 40.103 118 238 198
25.756 9.621 40.38 118 238 198
26.001 6.715 40.767 118 238 198
25.532 6.426 39.349 118 238 198
24.424 5.386 39.331 118 238 198
23.893 5.165 37.923 118 238 198
22.872 4.081 37.878 118 238 198
27.645 9.402 39.168 245 245 220
27.403 10.541 38.297 245 245 220
27.057 10.051 36.897 245 245 220
27.183 8.867 36.577 245 245 220
28.621 11.473 38.257 245 245 220
29.78 10.732 37.858 245 245 220
28.864 12.09 39.628 245 245 220
26.614 10.982 36.055 205 192 176
26.159 10.645 34.712 205 192 176
26.952 11.345 33.622 205 192 176
27.344 10.702 32.641 205 192 176
24.665 10.972 34.567 205 192 176
23.772 10.126 35.43 205 192 176
23.42 8.845 35.037 205 192 176
23.282 10.612 36.632 205 192 176
22.598 8.063 35.827 205 192 176
22.46 9.836 37.426 205 192 176
22.118 8.559 37.023 205 192 176
27.196 12.647 33.755 255 239 219
27.937 13.388 32.739 255 239 219
29.395 12.944 32.758 255 239 219
30.136 13.25 33.698 255 239 219
27.812 14.889 32.984 255 239 219
28.212 15.719 31.772 255 239 219
29.0 15.229 30.936 255 239 219
27.736 16.867 31.655 255 239 219
29.81 12.223 31.718 131 139 139
31.157 11.677 31.629 131 139 139
32.103 12.549 30.815 131 139 139
33.294 12.236 30.734 131 139 139
31.113 10.269 31.026 131 139 139
30.097 9.343 31.678 131 139 139
30.623 8.73 32.967 131 139 139
29.542 8.203 33.796 131 139 139
29.709 7.322 34.778 131 139 139
28.667 6.902 35.481 131 139 139
30.917 6.85 35.05 131 139 139
31.608 13.628 30.21 139 131 120
32.427 14.504 29.401 139 131 120
33.113 15.579 30.224 139 131 120
33.176 15.526 31.453 139 131 120
33.64 16.581 29.513 69 139 116
34.319 17.703 30.149 69 139 116
33.803 19.054 29.669 69 139 116
34.417 20.082 29.977 69 139 116
35.834 17.619 29.924 69 139 116
36.496 16.447 30.628 69 139 116
36.115 16.392 32.393 69 139 116
37.265 17.585 33.063 69 139 116
32.694 19.087 28.937 255 228 196
32.135 20.324 28.406 255 228 196
31.017 20.759 29.348 255 228 196
29.911 20.21 29.315 255 228 196
31.633 20.149 26.971 255 228 196
31.086 21.464 26.436 255 228 196
32.751 19.629 26.08 255 228 196
31.309 21.753 30.189 238 213 183
30.337 22.333 31.115 238 213 183
29.664 21.256 31.963 238 213 183
28.438 21.175 32.057 238 213 183
29.294 23.164 30.366 238 213 183
29.842 24.4 29.731 238 213 183
30.102 24.595 28.406 238 213 183
30.196 25.619 30.394 238 213 183
30.596 25.862 28.202 238 213 183
30.664 26.51 29.407 238 213 183
30.162 26.044 31.726 238 213 183
31.095 27.799 29.71 238 213 183
30.59 27.325 32.025 238 213 183
31.051 28.187 31.021 238 213 183
30.487 20.415 32.588 240 255 255
29.983 19.302 33.392 240 255 255
29.506 19.848 34.737 240 255 255
30.221 19.847 35.743 240 255 255
31.055 18.233 33.556 240 255 255
30.486 16.899 33.995 240 255 255
29.552 16.842 34.796 240 255 255
31.049 15.816 33.472 240 255 255
28.26 20.332 34.743 245 245 220
27.667 20.841 35.976 245 245 220
27.507 19.725 36.999 245 245 220
27.661 19.949 38.206 245 245 220
26.318 21.498 35.682 245 245 220
26.487 22.521 34.694 245 245 220
25.731 22.117 36.943 245 245 220
27.209 18.511 36.531 255 239 219
27.1 17.37 37.434 255 239 219
28.415 17.118 38.163 255 239 219
28.422 16.804 39.36 255 239 219
26.669 16.129 36.651 255 239 219
26.318 14.959 37.55 255 239 219
26.181 15.159 38.775 255 239 219
26.181 13.834 37.027 255 239 219
29.541 17.266 37.461 102 205 170
30.841 17.066 38.095 102 205 170
31.166 18.199 39.06 102 205 170
31.746 17.965 40.127 102 205 170
31.927 16.939 37.029 102 205 170
33.365 16.71 37.493 102 205 170
33.466 15.444 38.328 102 205 170
34.291 16.639 36.288 102 205 170
30.804 19.433 38.701 255 228 196
31.053 20.573 39.58 255 228 196
30.292 20.41 40.89 255 228 196
30.84 20.617 41.979 255 228 196
30.681 21.888 38.869 255 228 196
30.662 23.045 39.858 255 228 196
31.654 22.17 37.735 255 228 196
29.016 20.026 40.803 238 223 204
28.204 19.884 42.006 238 223 204
28.653 18.702 42.856 238 223 204
28.484 18.724 44.081 238 223 204
26.73 19.744 41.629 238 223 204
26.149 20.981 40.966 238 223 204
24.651 20.88 40.753 238 223 204
24.097 19.771 40.913 238 223 204
24.027 21.913 40.429 238 223 204
29.225 17.668 42.235 245 245 220
29.765 16.556 43.01 245 245 220
31.05 16.952 43.73 245 245 220
31.302 16.482 44.847 245 245 220
30.004 15.348 42.103 245 245 220
28.796 15.034 41.398 245 245 220
30.427 14.138 42.927 245 245 220
31.872 17.805 43.111 102 205 170
33.013 18.376 43.819 102 205 170
32.554 19.209 45.008 102 205 170
33.155 19.152 46.087 102 205 170
33.851 19.233 42.869 102 205 170
34.635 18.553 41.748 102 205 170
35.132 19.6 40.77 102 205 170
35.798 17.754 42.314 102 205 170
31.49 19.996 44.824 238 223 204
30.963 20.804 45.917 238 223 204
30.403 19.936 47.035 238 223 204
30.481 20.315 48.209 238 223 204
29.889 21.756 45.392 238 223 204
30.402 22.78 44.392 238 223 204
29.288 23.604 43.774 238 223 204
28.104 23.267 43.992 238 223 204
29.598 24.588 43.069 238 223 204
29.839 18.774 46.694 102 205 170
29.344 17.865 47.722 102 205 170
30.483 17.355 48.594 102 205 170
30.332 17.232 49.816 102 205 170
28.594 16.7 47.079 102 205 170
28.088 15.625 48.042 102 205 170
27.147 16.229 49.073 102 205 170
27.408 14.498 47.28 102 205 170
31.631 17.048 47.983 193 205 205
32.81 16.688 48.764 193 205 205
33.195 17.808 49.72 193 205 205
33.54 17.554 50.881 193 205 205
33.98 16.362 47.838 193 205 205
33.861 15.044 47.099 193 205 205
35.085 14.754 46.249 193 205 205
35.377 13.601 45.929 193 205 205
35.809 15.805 45.879 193 205 205
33.14 19.055 49.25 240 255 255
33.485 20.183 50.108 240 255 255
32.447 20.383 51.205 240 255 255
32.796 20.729 52.339 240 255 255
33.637 21.451 49.268 240 255 255
34.694 21.31 48.185 240 255 255
35.555 20.431 48.247 240 255 255
34.635 22.182 47.187 240 255 255
31.167 20.166 50.89 102 205 170
30.122 20.309 51.9 102 205 170
30.286 19.283 53.016 102 205 170
30.134 19.611 54.199 102 205 170
28.743 20.179 51.253 102 205 170
28.283 21.303 50.323 102 205 170
26.954 20.947 49.671 102 205 170
28.174 22.612 51.082 102 205 170
30.6 18.034 52.659 69 139 116
30.748 16.987 53.667 69 139 116
31.894 17.291 54.623 69 139 116
31.8 17.013 55.825 69 139 116
30.959 15.632 52.99 69 139 116
29.701 15.031 52.379 69 139 116
28.412 14.72 53.606 69 139 116
29.318 13.775 54.824 69 139 116
32.99 17.857 54.109 102 205 170
34.1 18.227 54.981 102 205 170
33.704 19.354 55.926 102 205 170
34.086 19.349 57.102 102 205 170
35.318 18.627 54.148 102 205 170
36.025 17.507 53.384 102 205 170
37.17 18.067 52.554 102 205 170
36.526 16.439 54.345 102 205 170
32.939 20.33 55.432 250 235 215
32.474 21.408 56.297 250 235 215
31.452 20.9 57.306 250 235 215
31.445 21.335 58.463 250 235 215
31.88 22.539 55.46 250 235 215
33.008 23.25 54.235 250 235 215
30.584 19.976 56.886 240 248 255
29.556 19.466 57.787 240 248 255
30.164 18.644 58.915 240 248 255
29.723 18.743 60.067 240 248 255
28.536 18.636 57.006 240 248 255
31.177 17.831 58.607 102 205 170
31.823 17.022 59.638 102 205 170
32.451 17.899 60.715 102 205 170
32.278 17.651 61.912 102 205 170
32.875 16.11 59.008 102 205 170
32.397 14.768 58.457 102 205 170
33.52 14.08 57.703 102 205 170
31.894 13.884 59.585 102 205 170
33.188 18.933 60.305 193 205 205
33.843 19.8 61.279 193 205 205
32.84 20.645 62.05 193 205 205
33.077 20.975 63.217 193 205 205
34.86 20.698 60.581 193 205 205
36.041 19.949 60.012 193 205 205
36.941 20.831 59.179 193 205 205
37.832 21.498 59.703 193 205 205
36.711 20.842 57.871 193 205 205
31.723 21.007 61.42 245 245 220
30.723 21.823 62.097 245 245 220
30.028 21.035 63.201 245 245 220
29.909 21.509 64.337 245 245 220
29.702 22.347 61.084 245 245 220
30.349 23.243 60.169 245 245 220
28.564 23.076 61.789 245 245 220
29.579 19.819 62.89 127 255 212
28.765 19.076 63.844 127 255 212
29.619 18.468 64.953 127 255 212
29.154 18.337 66.093 127 255 212
27.927 18.012 63.11 127 255 212
26.784 17.523 64.004 127 255 212
28.794 16.848 62.645 127 255 212
25.711 16.773 63.253 127 255 212
30.87 18.102 64.663 205 183 158
31.739 17.592 65.719 205 183 158
32.18 18.71 66.655 205 183 158
32.293 18.504 67.869 205 183 158
32.948 16.878 65.117 205 183 158
32.693 15.426 64.772 205 183 158
32.861 14.428 65.723 205 183 158
32.282 15.054 63.499 205 183 158
32.627 13.1 65.415 205 183 158
32.048 13.728 63.181 205 183 158
32.222 12.757 64.143 205 183 158
31.989 11.437 63.833 205 183 158
32.428 19.904 66.11 139 131 120
32.749 21.039 66.955 139 131 120
31.581 21.492 67.807 139 131 120
31.778 21.971 68.928 139 131 120
30.355 21.348 67.295 240 248 255
29.178 21.719 68.075 240 248 255
28.91 20.71 69.184 240 248 255
28.481 21.085 70.281 240 248 255
27.96 21.845 67.161 240 248 255
29.153 19.426 68.914 238 223 204
28.986 18.41 69.947 238 223 204
30.001 18.596 71.067 238 223 204
29.678 18.4 72.245 238 223 204
29.108 17.016 69.328 238 223 204
28.723 15.867 70.253 238 223 204
29.839 15.468 71.201 238 223 204
31.017 15.711 70.869 238 223 204
29.537 14.916 72.281 238 223 204
31.23 18.981 70.722 240 248 255
32.279 19.076 71.73 240 248 255
32.109 20.314 72.601 240 248 255
32.348 20.262 73.812 240 248 255
33.651 19.074 71.061 240 248 255
31.695 21.43 72.008 131 139 139
31.583 22.692 72.737 131 139 139
30.396 22.614 73.688 131 139 139
29.252 22.85 73.296 131 139 139
31.441 23.858 71.765 131 139 139
31.292 25.208 72.445 131 139 139
31.408 26.355 71.452 131 139 139
32.755 26.461 70.901 131 139 139
33.721 27.205 71.427 131 139 139
33.49 27.918 72.521 131 139 139
34.919 27.238 70.859 131 139 139
30.667 22.286 74.949 118 238 198
29.617 22.127 75.953 118 238 198
29.445 23.431 76.731 118 238 198
29.816 23.562 77.899 118 238 198
29.943 20.955 76.874 118 238 198
30.176 19.643 76.142 118 238 198
30.441 18.504 77.112 118 238 198
30.794 17.223 76.374 118 238 198
29.734 16.827 75.407 118 238 198
28.868 24.41 76.043 238 223 204
28.579 25.721 76.615 238 223 204
27.54 26.399 75.729 238 223 204
27.02 25.798 74.783 238 223 204
29.849 26.57 76.737 238 223 204
30.419 27.014 75.395 238 223 204
31.21 28.306 75.481 238 223 204
31.334 28.863 76.593 238 223 204
31.713 28.765 74.436 238 223 204
27.242 27.659 76.032 227 207 87
26.354 28.475 75.216 227 207 87
27.005 29.833 75.019 227 207 87
27.306 30.527 75.996 227 207 87
24.972 28.619 75.86 227 207 87
24.265 27.392 75.816 227 207 87
27.223 30.206 73.761 131 139 139
27.925 31.437 73.428 131 139 139
27.478 31.888 72.048 131 139 139
27.515 31.099 71.099 131 139 139
29.444 31.225 73.463 131 139 139
30.271 32.482 73.249 131 139 139
31.753 32.152 73.254 131 139 139
32.112 31.346 74.415 131 139 139
32.589 31.842 75.551 131 139 139
32.774 33.149 75.681 131 139 139
32.88 31.031 76.56 131 139 139
27.055 33.146 71.944 139 131 120
26.613 33.708 70.682 139 131 120
25.552 32.887 69.979 139 131 120
24.484 32.624 70.541 139 131 120
25.84 32.469 68.746 240 248 255
24.901 31.676 67.963 240 248 255
24.848 30.217 68.396 240 248 255
23.965 29.485 67.935 240 248 255
25.256 31.757 66.476 240 248 255
25.76 29.778 69.259 0 255 255
25.791 28.406 69.753 0 255 255
25.078 28.363 71.101 0 255 255
25.554 28.945 72.081 0 255 255
27.231 27.911 69.875 0 255 255
27.351 26.497 70.352 0 255 255
26.86 25.426 69.636 0 255 255
27.914 25.977 71.468 0 255 255
27.112 24.308 70.292 0 255 255
27.75 24.614 71.407 0 255 255
23.936 27.678 71.149 240 248 255
23.147 27.545 72.369 240 248 255
22.758 26.086 72.546 240 248 255
22.077 25.514 71.689 240 248 255
21.899 28.431 72.325 240 248 255
23.186 25.489 73.654 131 139 139
22.863 24.108 73.977 131 139 139
21.905 24.054 75.16 131 139 139
21.922 24.923 76.035 131 139 139
24.127 23.303 74.294 131 139 139
25.023 23.078 73.092 131 139 139
26.199 22.183 73.429 131 139 139
25.79 20.832 73.799 131 139 139
26.627 19.804 73.895 131 139 139
27.917 19.971 73.639 131 139 139
26.175 18.606 74.24 131 139 139
21.061 23.021 75.173 238 223 204
20.121 22.854 76.275 238 223 204
20.767 22.176 77.476 238 223 204
20.4 22.469 78.619 238 223 204
18.898 22.057 75.817 238 223 204
17.783 21.996 76.853 238 223 204
16.601 21.162 76.4 238 223 204
16.663 20.59 75.293 238 223 204
15.608 21.078 77.154 238 223 204
21.725 21.278 77.242 255 239 219
22.431 20.63 78.34 255 239 219
23.493 21.525 78.967 255 239 219
23.968 21.22 80.066 255 239 219
23.065 19.323 77.858 255 239 219
23.579 19.413 76.433 255 239 219
23.539 20.518 75.852 255 239 219
24.016 18.377 75.89 255 239 219
23.874 22.616 78.299 205 183 158
24.859 23.571 78.82 205 183 158
24.409 24.96 78.371 205 183 158
24.737 25.404 77.267 205 183 158
26.267 23.245 78.336 205 183 158
26.689 21.814 78.589 205 183 158
26.456 20.825 77.643 205 183 158
27.314 21.452 79.775 205 183 158
26.834 19.515 77.869 205 183 158
27.698 20.143 80.009 205 183 158
27.455 19.179 79.052 205 183 158
27.834 17.875 79.277 205 183 158
23.66 25.641 79.234 118 238 198
23.02 26.902 78.886 118 238 198
23.808 28.125 79.333 118 238 198
23.332 29.25 79.151 118 238 198
21.61 26.958 79.485 118 238 198
20.687 25.842 79.022 118 238 198
19.293 25.996 79.61 118 238 198
18.356 24.913 79.098 118 238 198
16.993 25.029 79.685 118 238 198
24.995 27.943 79.904 255 228 196
25.764 29.038 80.48 255 228 196
27.064 29.196 79.705 255 228 196
27.671 28.207 79.279 255 228 196
26.04 28.802 81.98 255 228 196
26.81 29.97 82.583 255 228 196
24.733 28.584 82.726 255 228 196
27.479 30.445 79.513 131 139 139
28.765 30.735 78.894 131 139 139
29.885 30.435 79.884 131 139 139
29.91 30.986 80.99 131 139 139
28.81 32.193 78.449 131 139 139
29.864 32.498 77.406 131 139 139
29.878 33.976 77.069 131 139 139
30.381 34.779 78.178 131 139 139
30.343 36.106 78.216 131 139 139
29.817 36.786 77.205 131 139 139
30.827 36.755 79.266 131 139 139
30.808 29.564 79.492 127 255 212
31.891 29.114 80.358 127 255 212
33.148 29.877 79.955 127 255 212
33.792 29.554 78.954 127 255 212
32.095 27.599 80.266 127 255 212
30.766 26.869 80.476 127 255 212
33.128 27.138 81.278 127 255 212
30.114 27.167 81.804 127 255 212
33.502 30.893 80.736 255 239 219
34.718 31.661 80.523 255 239 219
35.792 31.215 81.514 255 239 219
35.58 30.329 82.346 255 239 219
34.435 33.16 80.65 255 239 219
33.341 33.631 79.708 255 239 219
33.135 32.981 78.661 255 239 219
32.688 34.652 80.013 255 239 219
36.97 31.84 81.422 238 223 204
38.046 31.502 82.348 238 223 204
37.714 31.943 83.769 238 223 204
38.198 31.34 84.734 238 223 204
39.367 32.12 81.881 238 223 204
39.441 33.639 81.965 238 223 204
38.806 34.336 80.776 238 223 204
38.157 33.655 79.955 238 223 204
38.964 35.57 80.66 238 223 204
36.899 32.983 83.914 205 183 158
36.316 33.38 85.186 205 183 158
34.798 33.34 85.067 205 183 158
34.238 33.257 83.971 205 183 158
36.766 34.787 85.603 205 183 158
38.246 34.94 85.876 205 183 158
38.787 34.584 87.105 205 183 158
39.097 35.466 84.914 205 183 158
40.138 34.733 87.361 205 183 158
40.448 35.618 85.16 205 183 158
40.964 35.252 86.385 205 183 158
42.31 35.401 86.631 205 183 158
34.13 33.4 86.215 255 239 219
32.677 33.545 86.258 255 239 219
32.384 35.039 86.314 255 239 219
32.414 35.652 87.383 255 239 219
32.086 32.801 87.45 255 239 219
30.58 32.631 87.348 255 239 219
29.921 33.472 86.699 255 239 219
30.054 31.652 87.918 255 239 219
32.103 35.628 85.154 205 183 158
31.958 37.073 85.031 205 183 158
30.616 37.59 85.541 205 183 158
30.29 38.758 85.304 205 183 158
32.18 37.494 83.576 205 183 158
33.639 37.466 83.178 205 183 158
34.258 36.278 82.809 205 183 158
34.404 38.625 83.191 205 183 158
35.595 36.247 82.456 205 183 158
35.741 38.604 82.84 205 183 158
36.331 37.413 82.472 205 183 158
37.662 37.39 82.121 205 183 158
29.836 36.758 86.226 227 207 87
28.685 37.225 86.986 227 207 87
29.062 37.619 88.405 227 207 87
28.198 38.058 89.168 227 207 87
27.594 36.147 87.018 227 207 87
28.045 34.974 87.678 227 207 87
30.326 37.461 88.769 118 238 198
30.845 37.717 90.101 118 238 198
32.178 38.433 89.949 118 238 198
32.745 38.472 88.85 118 238 198
31.017 36.404 90.879 118 238 198
29.714 35.678 91.166 118 238 198
29.916 34.185 91.409 118 238 198
28.585 33.512 91.741 118 238 198
27.523 33.818 90.736 118 238 198
32.699 39.022 91.028 224 238 238
33.994 39.702 90.929 224 238 238
35.094 38.742 90.504 224 238 238
35.185 37.611 90.988 224 238 238
34.224 40.237 92.346 224 238 238
33.29 39.442 93.209 224 238 238
32.101 39.177 92.367 224 238 238
35.926 39.21 89.575 127 255 212
36.96 38.36 88.991 127 255 212
38.0 37.991 90.039 127 255 212
38.197 36.812 90.358 127 255 212
37.607 39.053 87.78 127 255 212
36.551 39.349 86.713 127 255 212
38.726 38.199 87.218 127 255 212
35.681 38.161 86.381 127 255 212
38.685 38.992 90.583 193 205 205
39.691 38.74 91.605 193 205 205
39.022 38.243 92.88 193 205 205
38.054 38.838 93.363 193 205 205
40.506 40.005 91.864 193 205 205
41.405 40.376 90.693 193 205 205
